# .PCD v0.7 - Point Cloud Data file format
VERSION 0.7
FIELDS x y z
SIZE 4 4 4
TYPE F F F
COUNT 1 1 1
WIDTH 1373
HEIGHT 1
VIEWPOINT 0 0 0 1 0 0 0
POINTS 1373
DATA ascii
-0.16510187 0.015173509 0.94319624
-0.15539686 0.015184469 0.9438774
-0.14479455 0.015196499 0.94462603
-0.13508108 0.015209514 0.9454537
-0.12534454 0.015221964 0.94623607
-0.11466192 0.015230084 0.9467417
-0.10485712 0.015237147 0.94718283
-0.099499635 0.015240254 0.9473688
-0.47059038 0.029356301 0.94017333
-0.46390769 0.028422987 0.94138438
-0.45475727 0.027118796 0.94295758
-0.44474578 0.026307551 0.9440673
-0.4348377 0.02593275 0.94484031
-0.4250657 0.024736222 0.94456953
-0.415084 0.024213899 0.94510901
-0.4052268 0.023263073 0.9454186
-0.39542741 0.022747906 0.94636792
-0.38481796 0.022410633 0.94729245
-0.37472412 0.021516254 0.94745201
-0.36529183 0.021541528 0.94856483
-0.35546634 0.020645836 0.94869202
-0.34507132 0.020668358 0.94972676
-0.33614618 0.0206721 0.94989872
-0.27228662 0.020668605 0.9497382
-0.26431191 0.021333888 0.94933712
-0.25447384 0.022216858 0.94865775
-0.24475938 0.023542723 0.94819915
-0.23484896 0.024677634 0.94769472
-0.22501427 0.025106652 0.94745368
-0.21494408 0.024968609 0.94709462
-0.20485255 0.025317738 0.94697601
-0.1949493 0.024867058 0.94639486
-0.1849637 0.025292605 0.94607192
-0.17505503 0.024838047 0.94534731
-0.16462278 0.02505311 0.94557124
-0.15488838 0.025070338 0.94622535
-0.14514345 0.025088262 0.94690198
-0.13476169 0.025319034 0.947649
-0.12501588 0.024892645 0.94798666
-0.11485776 0.025126508 0.94835788
-0.10502841 0.025136359 0.94872975
-0.098856375 0.025551993 0.94901729
-0.50466388 0.038272642 0.94067705
-0.49489439 0.037496384 0.9414869
-0.48479661 0.036363114 0.94212472
-0.47490552 0.035117131 0.94345152
-0.46541497 0.0344721 0.945746
-0.45592704 0.033461679 0.94765204
-0.44627619 0.031877141 0.9490056
-0.4385792 0.03145548 0.94983649
-0.20219342 0.031452283 0.94973987
-0.19426218 0.032115247 0.94940686
-0.18453127 0.03300079 0.94902563
-0.17483601 0.033967152 0.94860417
-0.16507654 0.034991398 0.94816971
-0.15516593 0.034981027 0.94791949
-0.14539121 0.035002869 0.94851846
-0.13487436 0.034904346 0.94920772
-0.12486655 0.03413688 0.94940674
-0.1153854 0.033756215 0.94953245
-0.10558635 0.032799389 0.94970989
-0.099161655 0.032055356 0.94985539
-0.57099938 0.048254237 0.94439858
-0.5650028 0.046521753 0.94308317
-0.55498564 0.046379272 0.94333541
-0.54498595 0.046484731 0.94389582
-0.53483021 0.045976017 0.94467056
-0.52525133 0.044471379 0.94518626
-0.51504338 0.042532936 0.94479561
-0.50501102 0.041952651 0.94564754
-0.49504188 0.041180756 0.94610709
-0.48593354 0.041063778 0.94754392
-0.47666684 0.040395685 0.94873083
-0.16178161 0.040445387 0.94989812
-0.15407321 0.041101292 0.94947422
-0.14563243 0.041411255 0.94955754
-0.1384128 0.040445313 0.94989645
-0.57249367 0.052568316 0.9480567
-0.56509113 0.052025069 0.94797903
-0.55503869 0.052135225 0.94849879
-0.54574668 0.051163945 0.94865817
-0.57148892 -0.26125214 0.95871127
-0.56410271 -0.26285321 0.95651466
-0.5546273 -0.26415244 0.95512629
-0.54563844 -0.2633214 0.95633721
-0.53517455 -0.26126343 0.9554354
-0.52922392 -0.26234257 0.95938176
-0.51793534 -0.2603288 0.95865184
-0.57457161 -0.25418824 0.95650631
-0.5654341 -0.25567567 0.95271027
-0.55573952 -0.25943473 0.95039248
-0.54239523 -0.25995395 0.95064664
-0.52525502 -0.25902176 0.95383865
-0.51470381 -0.25690448 0.95268071
-0.50509351 -0.25661731 0.95495605
-0.49493361 -0.25402153 0.95482403
-0.48498154 -0.25169435 0.95648056
-0.573686 -0.24642868 0.95209199
-0.56835705 -0.24820659 0.95044005
-0.48352608 -0.24869701 0.95162868
-0.47464868 -0.24693789 0.95503217
-0.46497303 -0.24294686 0.95500869
-0.45606497 -0.24117997 0.95825386
-0.45501181 -0.23779577 0.95294458
-0.44540602 -0.23569444 0.95536429
-0.43602541 -0.23256154 0.9557417
-0.42865905 -0.23109616 0.95779628
-0.43293658 -0.2289197 0.95125967
-0.42426276 -0.2269105 0.95352578
-0.41534719 -0.22373524 0.95399201
-0.40589046 -0.22223425 0.95540667
-0.39525798 -0.22119999 0.95811075
-0.38947821 -0.22061352 0.95950317
-0.40383369 -0.21831033 0.95183384
-0.39476144 -0.21673232 0.95351058
-0.38500693 -0.21487916 0.95518064
-0.37515357 -0.21282595 0.95667893
-0.36633521 -0.21187162 0.95867771
-0.17436716 -0.21160157 0.95980614
-0.16522086 -0.21151857 0.95942956
-0.15709561 -0.21157993 0.95970798
-0.38153976 -0.20966709 0.95103151
-0.37421146 -0.20763664 0.95162153
-0.36462897 -0.20653108 0.95361781
-0.35508648 -0.20510902 0.95491725
-0.34532872 -0.20398109 0.95642012
-0.33555958 -0.20323437 0.95789945
-0.32499698 -0.20119821 0.95822567
-0.31404403 -0.20069893 0.95833588
-0.30518091 -0.20144838 0.95863098
-0.29516158 -0.20119914 0.95823038
-0.28565219 -0.2012639 0.95901155
-0.27511367 -0.20066099 0.95960218
-0.24337903 -0.20069665 0.95977277
-0.23508151 -0.20059045 0.95926476
-0.22501951 -0.20052123 0.95893383
-0.21499261 -0.20047823 0.95872802
-0.20431586 -0.20174728 0.95828837
-0.19434543 -0.20401286 0.95770955
-0.18468973 -0.20549403 0.95734894
-0.17494354 -0.20538147 0.95684683
-0.16488348 -0.20558509 0.95656604
-0.1550228 -0.20537943 0.95683658
-0.14528944 -0.2053016 0.95770478
-0.13519117 -0.2043874 0.95824283
-0.12551942 -0.20261128 0.95851249
-0.1156521 -0.20135893 0.9590804
-0.10529649 -0.20060872 0.95935225
-0.095350817 -0.20069131 0.9597472
-0.34344316 -0.19850551 0.95144427
-0.33434644 -0.19772591 0.95310235
-0.32480592 -0.19562922 0.95325828
-0.31494656 -0.19474469 0.95303649
-0.30487946 -0.19483827 0.95331025
-0.29502299 -0.19507706 0.95428574
-0.28475228 -0.19429305 0.95473856
-0.27490607 -0.19442952 0.95572752
-0.26505008 -0.19470434 0.95675755
-0.25505191 -0.19452037 0.95650321
-0.24511932 -0.19447313 0.95593822
-0.23501623 -0.19434521 0.95531309
-0.22493652 -0.19422838 0.95473433
-0.21502082 -0.19484837 0.95482975
-0.20486028 -0.19493507 0.95378196
-0.19494982 -0.19582394 0.95310831
-0.18495694 -0.1954287 0.9524647
-0.17493752 -0.19563147 0.95217282
-0.16486837 -0.19640249 0.95215148
-0.15466444 -0.19591177 0.95219511
-0.14480436 -0.19591753 0.9531945
-0.13496579 -0.1950223 0.95391184
-0.12482618 -0.19436324 0.95479506
-0.11507472 -0.19432487 0.95590174
-0.10500051 -0.19461727 0.95665652
-0.095149018 -0.19483356 0.95772576
-0.08661744 -0.19380802 0.95913529
-0.30298617 -0.18970364 0.95019722
-0.29418191 -0.1893744 0.95079964
-0.28582349 -0.1883499 0.9509266
-0.27539408 -0.18719725 0.95116377
-0.26474839 -0.18663141 0.95171613
-0.25563443 -0.18665457 0.95156962
-0.24484535 -0.1872348 0.9513545
-0.23551577 -0.18737859 0.95094246
-0.22490473 -0.18801986 0.95077544
-0.21502049 -0.18893102 0.95083076
-0.2050892 -0.18979652 0.95066261
-0.19598621 -0.18969288 0.95014334
-0.14388742 -0.18975224 0.95044065
-0.13502117 -0.1881796 0.95075411
-0.12460656 -0.18616146 0.9510802
-0.11510326 -0.18472195 0.95167178
-0.10461556 -0.18488619 0.95316201
-0.094898969 -0.18528362 0.95521116
-0.085025959 -0.18534242 0.9572643
-0.11225569 -0.17640255 0.9503848
-0.10449977 -0.17518277 0.95159131
-0.095036991 -0.17474611 0.95319754
-0.086019866 -0.17494677 0.95482212
0.038147748 -0.17166495 0.95993185
0.046166625 -0.17270882 0.95984364
0.053585827 -0.17269407 0.95988208
-0.10460003 -0.16576031 0.95055056
-0.095483713 -0.16484825 0.95203245
-0.085729219 -0.16514458 0.95374388
0.0070837275 -0.16183719 0.95982236
0.01575746 -0.16297072 0.95970118
0.025724877 -0.16439858 0.95957369
0.035403721 -0.16521887 0.95941502
0.045386065 -0.16520585 0.95934081
0.055377059 -0.1652234 0.95944244
0.064301781 -0.16341355 0.95973277
0.071753934 -0.16076514 0.95992917
-0.10219201 -0.15853263 0.95017749
-0.094989814 -0.15528241 0.95103019
-0.084866613 -0.15492733 0.95274842
-0.078103974 -0.15166724 0.95983338
-0.00090821041 -0.1525794 0.95985806
0.0054456075 -0.15521769 0.95932126
0.015425172 -0.1551616 0.95897406
0.025400037 -0.15512329 0.95873749
0.03537707 -0.15511514 0.95868826
0.045356862 -0.1551208 0.95872325
0.055337973 -0.15512805 0.95876795
0.065344125 -0.15519153 0.95915991
0.07495252 -0.15485777 0.95964867
0.08405894 -0.15247673 0.95984674
0.092646398 -0.15168574 0.95995051
-0.082764991 -0.14645477 0.95324337
-0.075512268 -0.1448694 0.95905638
-0.068098143 -0.14255273 0.95961237
-0.0023611083 -0.14473985 0.95966434
0.005440766 -0.14511859 0.958565
0.01541068 -0.14504336 0.95806718
0.025381777 -0.14503914 0.95804089
0.035354447 -0.14504437 0.95807552
0.045328856 -0.14505263 0.95813018
0.055305567 -0.14506395 0.95820653
0.065295741 -0.14510112 0.95845115
0.075301141 -0.14515908 0.95883262
0.085306413 -0.1452024 0.95912021
0.095316485 -0.14524405 0.95939702
0.10491221 -0.14573766 0.95955503
0.11502107 -0.14559248 0.95969951
0.12441937 -0.14530702 0.95981395
-0.080503531 -0.13477731 0.95597267
-0.075188801 -0.1349822 0.95742697
-0.065503091 -0.13510908 0.95922226
-0.0030270042 -0.13831453 0.95960742
0.0056404797 -0.13621713 0.95893145
0.015423095 -0.1360828 0.9588213
0.025401102 -0.13698214 0.95876068
0.035390392 -0.1370227 0.95904475
0.044833496 -0.13740459 0.95917553
0.055366576 -0.13796186 0.95926154
0.065363117 -0.13798782 0.95944172
0.074756667 -0.1386175 0.95960999
0.083557233 -0.13895902 0.95987749
-0.080346368 -0.12458292 0.95410639
-0.075011015 -0.12472142 0.95515996
-0.065249287 -0.12506853 0.95781845
-0.058559604 -0.12211321 0.95953298
-0.080261961 -0.11453193 0.9531039
-0.074913621 -0.11462948 0.95391715
-0.065149449 -0.11492188 0.95635009
-0.056513749 -0.11447109 0.95881945
-0.08016976 -0.10539253 0.9520092
-0.074724488 -0.10476635 0.95309639
-0.065094776 -0.10487973 0.95554382
-0.055286635 -0.10513984 0.95790678
-0.048916709 -0.10338199 0.95935982
-0.080510862 -0.094905257 0.95072067
-0.07488481 -0.094769441 0.95178574
-0.06496691 -0.094748005 0.9536584
-0.055154771 -0.094943009 0.95562249
-0.0468552 -0.094794713 0.95848757
-0.0734495 -0.086641259 0.95053196
-0.064817995 -0.08462695 0.95146549
-0.055017754 -0.084787205 0.95325923
-0.045280162 -0.08513657 0.95718998
-0.038674679 -0.082978815 0.95948523
-0.063242726 -0.077929683 0.95032221
-0.054006603 -0.075511962 0.95132393
-0.04516957 -0.074990146 0.95485365
-0.036323991 -0.074800171 0.95852202
-0.051860854 -0.06864851 0.95046741
-0.04479577 -0.065106817 0.9525426
-0.0352946 -0.065167077 0.95653206
-0.029425353 -0.063648388 0.95899761
-0.051862139 -0.051862139 0.95048881
-0.044595439 -0.054603629 0.95184314
-0.035230722 -0.055107731 0.95478773
-0.028235942 -0.055568345 0.95826846
-0.073038787 -0.041865036 0.95038944
-0.064777136 -0.042284537 0.95084584
-0.054599576 -0.044592556 0.95177758
-0.045151159 -0.045151051 0.95444268
-0.035672821 -0.04573942 0.95765918
-0.029946823 -0.049003471 0.95908558
-0.08074192 -0.032908041 0.95026273
-0.07453607 -0.034943227 0.95101553
-0.064881794 -0.035143625 0.95239729
-0.055099662 -0.035226356 0.95468324
-0.046215631 -0.036247458 0.95776576
-0.039031513 -0.039031513 0.95932883
-0.090807401 -0.020678911 0.95021176
-0.083945222 -0.024540814 0.95126158
-0.074855529 -0.02524952 0.95317751
-0.065064229 -0.025300154 0.95508903
-0.056635763 -0.026384652 0.95813298
-0.093175314 -0.014761521 0.95063221
-0.084689647 -0.015316176 0.952223
-0.075054161 -0.015372256 0.95572031
-0.065541767 -0.015671672 0.95829105
-0.059013024 -0.018157573 0.95952231
-0.09453059 -0.005400978 0.9514991
-0.084771127 -0.0054101194 0.95313102
-0.075113639 -0.005429436 0.95648044
-0.068066403 -0.00544495 0.95917404
-0.094580762 0.0054050912 0.95200676
-0.084850222 0.0054169651 0.95401734
-0.075130515 0.0054310043 0.95669258
-0.06806992 0.0054454072 0.95922321
-0.29035243 0.018877404 0.95004356
-0.09468054 0.015330503 0.95301467
-0.084952138 0.015364826 0.95515937
-0.07513994 0.01539081 0.95679826
-0.067442268 0.01572665 0.95890892
-0.42157724 0.029663218 0.95000279
-0.41571403 0.029693969 0.95098764
-0.40521741 0.028816504 0.95169502
-0.39477217 0.028168183 0.95256412
-0.38493526 0.02797077 0.95350337
-0.37491477 0.027159858 0.95374781
-0.36483556 0.026925234 0.95470625
-0.35501334 0.025802784 0.95472121
-0.3448059 0.025397444 0.9553352
-0.33460763 0.025020028 0.95454383
-0.32486832 0.025126984 0.9544065
-0.31499639 0.025154116 0.95423555
-0.30500808 0.025428463 0.95431435
-0.29506615 0.025145955 0.95401746
-0.28508413 0.025266174 0.95347005
-0.27545911 0.025458897 0.95256752
-0.26532918 0.026776895 0.95211732
-0.25526583 0.027481914 0.95131618
-0.24545507 0.028972587 0.95092696
-0.23646736 0.029670777 0.9502449
-0.094144411 0.025120124 0.95488709
-0.085054666 0.025337258 0.95630807
-0.075206898 0.025372608 0.95764679
-0.065693803 0.025767243 0.95907575
-0.020886658 0.029967815 0.95975786
-0.015027576 0.029146215 0.95929271
-0.0054437811 0.028120968 0.95874476
0.0054433416 0.02811987 0.95871234
0.015096161 0.028789194 0.9590168
0.024509236 0.029350214 0.95936829
0.03450774 0.02996701 0.95973212
-0.46249199 0.038691085 0.95096159
-0.4538922 0.037551317 0.95242643
-0.44492868 0.036255222 0.95382291
-0.43464449 0.035497122 0.95473832
-0.42500743 0.034570232 0.95502669
-0.41530687 0.034133997 0.95608038
-0.40507257 0.033507451 0.95702934
-0.39501676 0.032617111 0.95752662
-0.38585597 0.03255026 0.95852429
-0.37560216 0.031753916 0.95884806
-0.36959413 0.031783279 0.95973474
-0.29419118 0.031779848 0.95963109
-0.28446853 0.032548588 0.95848548
-0.27456614 0.033623893 0.95731646
-0.26474211 0.034991294 0.956644
-0.25506949 0.035323098 0.95530975
-0.24497786 0.035000209 0.95381814
-0.23494433 0.035370391 0.9529832
-0.2249597 0.034954119 0.95237124
-0.21508786 0.035273489 0.95204556
-0.20539826 0.035389308 0.95145786
-0.19561172 0.036476593 0.95115137
-0.18583632 0.037399087 0.95078033
-0.17594641 0.038366538 0.95034939
-0.13034014 0.038652595 0.9500156
-0.12495955 0.038656592 0.95011389
-0.11418407 0.038061455 0.950216
-0.10478889 0.037143264 0.95031357
-0.095322214 0.035567522 0.95482945
-0.085244209 0.035369493 0.95843846
-0.075660594 0.034013487 0.95934016
-0.065973155 0.0347833 0.95970911
-0.022041656 0.035745043 0.95971638
-0.015423642 0.035381213 0.958808
-0.0054368163 0.035330199 0.957425
0.0054309457 0.03530103 0.95664126
0.015390147 0.035305202 0.9567737
0.025356432 0.035315469 0.9570713
0.035332512 0.035329625 0.95747292
0.045322534 0.035348117 0.95798647
0.055308215 0.036265261 0.95824325
0.06486237 0.037419278 0.95874447
0.074568354 0.038515799 0.9594084
0.080836229 0.039055705 0.95992339
-0.52442384 0.049131021 0.95177335
-0.51440269 0.048134416 0.95378995
-0.50474727 0.047617227 0.95544243
-0.49495187 0.046067912 0.95457119
-0.48519301 0.045350756 0.95511973
-0.47523269 0.0435188 0.95496559
-0.46512103 0.041947685 0.95590949
-0.45538303 0.041046001 0.95791084
-0.4485566 0.040860437 0.95964599
-0.25413236 0.040842533 0.95922542
-0.24461535 0.042200182 0.95832026
-0.23434058 0.043285079 0.95698273
-0.22499931 0.045366853 0.9569822
-0.21500269 0.045015875 0.95592511
-0.20499511 0.045341529 0.9552303
-0.19491403 0.045023434 0.95432442
-0.18497507 0.045119621 0.95362741
-0.1748933 0.045079216 0.95277381
-0.16503941 0.045365054 0.95202488
-0.15515633 0.046318866 0.95152372
-0.14459229 0.046699092 0.95092899
-0.13474692 0.045252364 0.95089138
-0.12509006 0.044998031 0.95110607
-0.11521269 0.045006596 0.95128703
-0.10516528 0.045164108 0.9515413
-0.096273452 0.044417556 0.95407653
-0.087769456 0.041463744 0.95959687
-0.064490438 0.04087422 0.95996964
-0.023216724 0.045783851 0.95952845
-0.015418019 0.045343958 0.95845848
-0.0054350328 0.045283306 0.95717281
0.0054296292 0.045250993 0.95648533
0.015379104 0.045232791 0.95610714
0.025329184 0.045230191 0.95605648
0.035280325 0.045230694 0.95606714
0.045231692 0.045231204 0.95607781
0.055183832 0.045232143 0.95609754
0.065177336 0.045261033 0.95670629
0.07520093 0.045300741 0.9575519
0.085108057 0.04546712 0.95834243
0.095028982 0.0465867 0.95888442
0.10494037 0.047749292 0.95940721
0.11316291 0.048861623 0.95985621
-0.57288873 0.057110377 0.95199364
-0.56494409 0.056767277 0.95226949
-0.55480063 0.056964099 0.95404518
-0.54499108 0.055718448 0.95481211
-0.53526014 0.054121107 0.95513123
-0.52518046 0.052984029 0.95669287
-0.51557678 0.051959883 0.95860523
-0.2216122 0.051770039 0.95989603
-0.2145136 0.052040059 0.95928961
-0.20449951 0.053004678 0.95874453
-0.1946052 0.053919509 0.95818567
-0.18472698 0.055002745 0.95774162
-0.17494899 0.055092871 0.95687419
-0.16497931 0.055384047 0.95615089
-0.15492998 0.05492666 0.95506287
-0.14498675 0.055288937 0.95438337
-0.13500477 0.054842941 0.9534865
-0.12487733 0.055253796 0.95390618
-0.11506933 0.054879781 0.95425135
-0.10480768 0.055117801 0.95490003
-0.097619891 0.055140309 0.95529014
-0.032997351 0.057820857 0.9598282
-0.025261205 0.055497155 0.95936286
-0.0154124 0.055299643 0.95810908
-0.0054339697 0.055239554 0.95706421
0.0054298113 0.055208046 0.9565174
0.015377721 0.055180103 0.95603341
0.025318196 0.055157766 0.95564967
0.035262872 0.055154409 0.95559418
0.045209322 0.055155035 0.95560515
0.055161607 0.055161089 0.95570809
0.06516543 0.05520869 0.95653081
0.075194709 0.055263057 0.95747203
0.085229412 0.055308171 0.95824981
0.095267028 0.05534555 0.9588967
0.10531784 0.055382516 0.95953721
0.11208136 0.053951718 0.95992821
-0.57530779 0.063918255 0.95725799
-0.56570178 0.06152099 0.95743316
-0.55608261 0.060779195 0.95873958
-0.17434758 0.060839877 0.95969689
-0.16444895 0.061532456 0.95916337
-0.15470074 0.062313881 0.95871681
-0.14475128 0.063227475 0.95831907
-0.13502607 0.063437238 0.95774823
-0.12505345 0.063435145 0.95771784
-0.11512874 0.063458949 0.95808047
-0.10553192 0.063238472 0.95848936
-0.097957931 0.062585302 0.95859814
-0.04147435 0.065692879 0.95984381
-0.035117693 0.064823143 0.95952052
-0.025401739 0.065316051 0.95876408
-0.015407042 0.065249659 0.95778555
-0.0054339683 0.065201811 0.95707852
0.0054299943 0.065165803 0.95654964
0.01537824 0.065132812 0.95606548
0.025316112 0.065099865 0.95558208
0.035247933 0.065073133 0.9551934
0.045186959 0.065068744 0.9551326
0.055146996 0.065090634 0.95544988
0.065155499 0.065154389 0.9563849
0.075184159 0.065219291 0.95733744
0.085233055 0.065284051 0.95828754
0.095291391 0.065342478 0.95914137
0.10416077 0.064743005 0.95972258
-0.023058122 0.072078303 0.9594081
-0.015417421 0.072549209 0.95842808
-0.0054403548 0.073432103 0.95810479
0.0056325151 0.074176557 0.95752954
0.015547198 0.075023316 0.9571802
0.025336897 0.075110741 0.95637935
0.035261091 0.075045548 0.95556152
0.045178201 0.074996933 0.95495391
0.055140994 0.07502725 0.95534617
0.065145545 0.075097129 0.95623904
0.07517267 0.075171918 0.95719123
0.085220404 0.075246841 0.95814532
0.095287569 0.075321943 0.9591015
0.10262056 0.075375952 0.95978874
0.027236829 0.080804281 0.959544
0.036066577 0.081434175 0.95893645
0.045852043 0.081990972 0.95823926
0.055307578 0.082509764 0.95824188
0.065029062 0.082421549 0.95845872
0.075258352 0.081605762 0.95828688
0.085272305 0.081643723 0.95873332
0.095315322 0.081698798 0.95938271
0.1021653 0.081278205 0.95977879
-0.0018164385 0.13894539 0.95978343
0.0061651017 0.13801682 0.95838463
0.015668416 0.13699587 0.95795786
0.024806784 0.13778993 0.95911783
0.038145166 0.13895753 0.95986736
0.040873222 0.13896896 0.95994627
-0.052947264 0.14855289 0.95927411
-0.044733822 0.14674111 0.95832062
-0.03533496 0.14495689 0.95753014
-0.025501367 0.1456148 0.95704323
-0.015279605 0.14513908 0.95769656
-0.0054361057 0.14493936 0.95739967
0.0054293824 0.1447985 0.956451
0.015388582 0.14482847 0.95663238
0.024793372 0.14345498 0.95856172
0.035784222 0.142956 0.95988214
0.040873718 0.14078724 0.95995784
0.06900385 0.14981124 0.95957959
0.075961642 0.14790528 0.95899951
0.085369222 0.14617828 0.95869589
0.094172493 0.14387532 0.95912147
-0.054884471 0.15541667 0.95800495
-0.045247797 0.15474716 0.95640719
-0.035277434 0.15468067 0.95599067
-0.025349168 0.15482149 0.9568581
-0.015883086 0.15402345 0.95782584
-0.0059607564 0.15278442 0.95869696
0.0047195917 0.152284 0.95913917
0.011807068 0.15167542 0.95988512
0.056457538 0.15726419 0.95981187
0.06535995 0.15462619 0.95940822
0.07505472 0.15322044 0.95899481
0.082913153 0.15220885 0.95942968
-0.054300424 0.16229363 0.95911908
-0.045546997 0.16349947 0.95891112
-0.035610348 0.16262813 0.95885766
-0.027326217 0.16164066 0.9591338
0.055403259 0.1607604 0.95990086
-0.5644595 -0.27123362 0.96843934
-0.55398196 -0.27247235 0.96668667
-0.54511976 -0.2713173 0.96827072
-0.5387522 -0.27075282 0.96999949
-0.58225864 -0.26325178 0.96604466
-0.57506746 -0.26428285 0.96395814
-0.56459707 -0.26815993 0.96397829
-0.55219227 -0.26836416 0.96144199
-0.54513937 -0.26763618 0.96318072
-0.53576928 -0.26666006 0.9653998
-0.52588308 -0.26458961 0.96491796
-0.51541448 -0.26303622 0.96487659
-0.50648886 -0.26238951 0.96624023
-0.49802279 -0.26091465 0.96755171
-0.58159274 -0.25757775 0.96191937
-0.57851243 -0.25849739 0.96083385
-0.50156552 -0.25943145 0.96205145
-0.49341607 -0.25800565 0.9643749
-0.48487082 -0.25567892 0.96506327
-0.4751724 -0.25231719 0.96458668
-0.46648315 -0.25111338 0.96859127
-0.46495548 -0.24767613 0.96353459
-0.45519349 -0.24442573 0.96460927
-0.44554833 -0.24228054 0.96691728
-0.43912506 -0.24110624 0.96888727
-0.44411901 -0.23889664 0.96183497
-0.43452674 -0.23688456 0.96432346
-0.42522782 -0.23428451 0.96559173
-0.41632864 -0.23179525 0.9665854
-0.40446591 -0.23020622 0.96931267
-0.42088658 -0.2299877 0.96073723
-0.41276503 -0.22870862 0.96300685
-0.40532708 -0.22721271 0.96373636
-0.39548579 -0.22540021 0.96499091
-0.38567144 -0.22308901 0.96536857
-0.37531984 -0.22153097 0.96747351
-0.36982635 -0.22116166 0.96986961
-0.19349861 -0.22100954 0.96920252
-0.18448339 -0.22203328 0.96794933
-0.17458445 -0.22342172 0.96681219
-0.16458039 -0.22462483 0.96605653
-0.15539938 -0.22431968 0.96640128
-0.14524329 -0.22310202 0.96677846
-0.13561186 -0.22199611 0.96710145
-0.12587751 -0.22153389 0.96792817
-0.11550098 -0.22092248 0.96882081
-0.10920609 -0.22116527 0.96988541
-0.38179857 -0.21907988 0.96074021
-0.37469724 -0.21793336 0.96224117
-0.36447075 -0.21604829 0.96342313
-0.35526606 -0.2149599 0.96457523
-0.34484825 -0.21376736 0.96546483
-0.33487606 -0.21319 0.96700042
-0.32563412 -0.21244226 0.96823323
-0.31520218 -0.21166156 0.96839052
-0.30399889 -0.21254627 0.96870655
-0.29457223 -0.21245608 0.96821082
-0.28478169 -0.2124424 0.96776897
-0.2750203 -0.21244487 0.96740156
-0.26529902 -0.21287543 0.96813512
-0.25445226 -0.21322386 0.96834564
-0.24493764 -0.21333499 0.96817935
-0.23508577 -0.21356042 0.96816301
-0.2249922 -0.2132518 0.96777177
-0.21516365 -0.21333419 0.96765655
-0.20482261 -0.21423705 0.96700203
-0.19487622 -0.21435793 0.96492046
-0.1850296 -0.21510987 0.96329975
-0.17490409 -0.21637763 0.96230942
-0.164978 -0.21646312 0.961797
-0.15464729 -0.21635596 0.96229649
-0.14521797 -0.21501608 0.96251279
-0.13462435 -0.21443951 0.96321458
-0.12497368 -0.21437591 0.96409804
-0.11507252 -0.21462479 0.96521825
-0.10509828 -0.21477062 0.96587288
-0.095254712 -0.21476124 0.9663952
-0.085039809 -0.21397527 0.96641189
-0.078685015 -0.21410014 0.96697402
-0.3525849 -0.20991535 0.96040142
-0.3435939 -0.20815669 0.96067268
-0.33457249 -0.2076304 0.9620592
-0.32488146 -0.20669536 0.96321225
-0.31527758 -0.20608905 0.96330869
-0.30516261 -0.20713042 0.96381539
-0.29495752 -0.20673555 0.96300745
-0.28449324 -0.20646547 0.96266228
-0.2749244 -0.20577154 0.96281278
-0.26503938 -0.20515034 0.96329957
-0.25498804 -0.20497446 0.96309853
-0.24527533 -0.20566277 0.96303922
-0.23504797 -0.20589863 0.96285015
-0.22521305 -0.20570119 0.96253359
-0.2151317 -0.20594877 0.96252847
-0.2055638 -0.20660569 0.96190673
-0.19692737 -0.20783713 0.96087515
-0.18810241 -0.20991138 0.96038318
-0.14264126 -0.2098738 0.96021122
-0.13540916 -0.20902026 0.96046305
-0.12473329 -0.20746601 0.96084023
-0.11448024 -0.20631614 0.96145278
-0.10489257 -0.20549938 0.96159565
-0.094670974 -0.20573033 0.96206814
-0.084902182 -0.20476624 0.96247196
-0.078664094 -0.20589754 0.96391827
-0.08347813 -0.19741039 0.96071935
-0.079280742 -0.19555098 0.96309471
0.0073421495 -0.19181415 0.96996248
0.014681634 -0.1917818 0.96979886
0.024769478 -0.19173557 0.96956503
0.035766672 -0.19213097 0.96924424
0.044922091 -0.19252568 0.96892196
0.054991767 -0.19247013 0.96864223
0.064418815 -0.19233994 0.9691413
0.075225361 -0.19173099 0.96954197
-0.081368409 -0.1819361 0.96624297
-0.075315982 -0.18473932 0.96795094
-0.06522008 -0.18344715 0.96823281
-0.054985244 -0.18328726 0.96854204
-0.045136232 -0.18260741 0.9685849
-0.034821402 -0.18235311 0.96845204
-0.024732156 -0.18319805 0.9680686
-0.014782564 -0.18465443 0.9678095
-0.0045775031 -0.18583025 0.96745878
0.0045753308 -0.18576832 0.96713614
0.014637257 -0.18571828 0.9668752
0.024688374 -0.18562727 0.96639943
0.034723386 -0.18550356 0.96575564
0.044745091 -0.18537849 0.96510434
0.054777469 -0.18533276 0.96486628
0.064866871 -0.18546703 0.96556526
0.074974924 -0.18561086 0.96631444
0.085098229 -0.185755 0.9670645
0.095068276 -0.18575101 0.96770293
0.10506346 -0.18522699 0.96795619
0.11503705 -0.18384056 0.96765649
0.12467296 -0.18363927 0.96819788
0.13429709 -0.18196563 0.96883011
0.14487831 -0.18063869 0.96909219
0.15505835 -0.18074802 0.96967876
0.160616 -0.18080772 0.96999902
-0.081173874 -0.17511998 0.96393281
-0.074817739 -0.17427479 0.9643082
-0.06481313 -0.17435962 0.96477664
-0.054791231 -0.17442259 0.96512419
-0.044760846 -0.17447928 0.96543711
-0.034697123 -0.17439722 0.96498126
-0.02462873 -0.17422369 0.96402228
-0.014334938 -0.17458752 0.96328157
-0.0045545432 -0.17487448 0.96257806
0.0047621122 -0.17559439 0.96230233
0.014718931 -0.17579149 0.96192926
0.025141936 -0.17535257 0.96128285
0.034809083 -0.17601475 0.96105552
0.044654105 -0.1770678 0.96083117
0.055835135 -0.17659828 0.96075648
0.064771898 -0.17536062 0.9610309
0.07500916 -0.17521246 0.96163094
0.084664322 -0.17479259 0.96213448
0.09474133 -0.17490882 0.96277261
0.10483211 -0.17502648 0.96341902
0.11488628 -0.17415403 0.96364272
0.12499504 -0.17426457 0.96425176
0.13498461 -0.17428236 0.96504605
0.14510235 -0.17470169 0.965891
0.15494877 -0.17445888 0.96645218
0.16506615 -0.17500435 0.96726233
0.17492656 -0.17492792 0.96792489
0.1848627 -0.17478271 0.96857291
0.19532114 -0.17423032 0.96914577
0.2029435 -0.17297597 0.96954167
-0.080985576 -0.16470221 0.96169692
-0.074672081 -0.16482843 0.96243453
-0.064692691 -0.16492194 0.96298224
-0.054680996 -0.16495571 0.96317971
-0.04467658 -0.16503257 0.96363068
-0.034646459 -0.16502306 0.96357828
-0.024599265 -0.16490278 0.96287614
-0.014567046 -0.16478115 0.96216577
-0.0045478074 -0.16459303 0.96106458
0.0048229191 -0.16670725 0.96034789
0.015026118 -0.1683635 0.96022868
0.023922348 -0.16957696 0.96010906
0.066930339 -0.16796151 0.96022111
0.075358242 -0.16504717 0.96044946
0.084556073 -0.16456592 0.96090502
0.094610952 -0.16465905 0.96144897
0.10466856 -0.16473956 0.96191758
0.11471383 -0.16478799 0.96219915
0.12476694 -0.16483858 0.96249425
0.13488862 -0.16496518 0.96323335
0.1450323 -0.16510011 0.96402121
0.15519312 -0.16523522 0.96481019
0.1653699 -0.16537039 0.96559936
0.17463373 -0.16549119 0.96630448
0.18505651 -0.16527064 0.9670192
0.19501996 -0.16480684 0.96765125
0.20469482 -0.16471878 0.96848017
0.21210285 -0.16348104 0.9695698
-0.074299514 -0.15574625 0.96097994
-0.06448745 -0.1548658 0.96179718
-0.054619983 -0.15475897 0.96211028
-0.044652093 -0.15491895 0.96310771
-0.034652218 -0.15502121 0.96374673
-0.024605239 -0.15491857 0.96310943
-0.01456636 -0.15475288 0.96207589
-0.0050002248 -0.1554331 0.96065515
0.078428887 -0.15837187 0.96010351
0.085977972 -0.15659477 0.96034586
0.095669456 -0.15573537 0.96056515
0.10493846 -0.15523712 0.96068734
0.11488926 -0.15567611 0.96094811
0.12459447 -0.15551639 0.96116447
0.13481081 -0.15483153 0.96175027
0.14480333 -0.15482213 0.96249908
0.15494369 -0.15494454 0.96325958
0.16509649 -0.15506417 0.96400326
0.17512803 -0.15504733 0.9647097
0.18505837 -0.15513529 0.96542561
0.19468893 -0.15447216 0.9660086
0.20494351 -0.15462251 0.9669494
0.21526748 -0.15476637 0.96880531
0.22174959 -0.15201311 0.96976471
-0.072681732 -0.14990629 0.96018839
-0.064525507 -0.14582397 0.96049672
-0.054577872 -0.14463475 0.96138036
-0.044629291 -0.14482068 0.96261573
-0.034649365 -0.14498241 0.96369255
-0.024605842 -0.14489578 0.96311587
-0.014884708 -0.14486878 0.96164042
-0.0070430818 -0.14517216 0.96042371
0.10707372 -0.14341339 0.96016788
0.11585478 -0.1449312 0.96033782
0.12559003 -0.14558181 0.96043313
0.13528182 -0.14444353 0.96104777
0.14471313 -0.14471109 0.96189904
0.15488549 -0.14486091 0.96289635
0.16507973 -0.14501226 0.96390432
0.17495911 -0.14535119 0.96485633
0.18525493 -0.14433792 0.96626383
0.19491257 -0.14458008 0.96711797
0.20488846 -0.14492233 0.96796316
0.21425618 -0.14639194 0.96921772
0.22115295 -0.14957647 0.96983141
-0.060865615 -0.13899162 0.96010286
-0.054457493 -0.13478324 0.96156168
-0.044640686 -0.13483468 0.96285903
-0.034665361 -0.13501719 0.96416736
-0.024629081 -0.13499527 0.9640196
-0.014702892 -0.1346532 0.96250457
-0.0051298146 -0.13383462 0.96118051
0.0046965904 -0.13120572 0.96074468
0.014960682 -0.13084306 0.96091312
0.02488593 -0.13192861 0.96077168
0.034825578 -0.13175839 0.96113878
0.04516859 -0.13247438 0.96116245
0.054770056 -0.13267303 0.96126509
0.064834893 -0.13291666 0.9612298
0.075035505 -0.13339081 0.96146065
0.08513616 -0.13426603 0.96159774
0.094927482 -0.1344907 0.96195018
0.10470817 -0.13475116 0.96228158
0.11476199 -0.1347964 0.9626025
0.124809 -0.13482697 0.96282065
0.13494016 -0.13493615 0.96359962
0.1451312 -0.13508701 0.9646771
0.15491088 -0.135471 0.96563852
0.16508164 -0.13513927 0.96683007
0.17487986 -0.13550602 0.96766585
0.18499462 -0.13490719 0.96866328
0.19502702 -0.13602877 0.96920419
0.20385268 -0.13743038 0.96959925
-0.054153007 -0.12519491 0.96164256
-0.044680513 -0.12492545 0.96372658
-0.034722846 -0.12519178 0.96578389
-0.024897674 -0.12474163 0.96685791
-0.014613043 -0.12510882 0.9651491
-0.0045598759 -0.12491576 0.96366167
0.004557115 -0.12486199 0.96325135
0.014583945 -0.12487078 0.96331871
0.024616966 -0.12490465 0.96357995
0.034656413 -0.12494183 0.96386677
0.044697937 -0.12496915 0.96407622
0.054732446 -0.12497009 0.96408266
0.064766526 -0.12496957 0.96407872
0.074825995 -0.1250111 0.9643988
0.084900782 -0.12506615 0.96482325
0.094980642 -0.12511609 0.96520787
0.10505357 -0.12514853 0.96545714
0.11512503 -0.12517333 0.96564847
0.12520033 -0.1251981 0.96583974
0.13517711 -0.12511328 0.96659893
0.14511262 -0.12429597 0.96787566
0.15476355 -0.12480054 0.96862566
0.16457157 -0.12627892 0.96907717
0.17475136 -0.12796697 0.96949464
0.18260407 -0.12938266 0.96978951
-0.051986288 -0.11685833 0.96111512
-0.044862729 -0.11483003 0.9639014
-0.034782045 -0.11533689 0.96743894
-0.024672508 -0.11585682 0.96900368
-0.014654711 -0.1153917 0.96791106
-0.0045757042 -0.11530312 0.96717668
0.0045757028 -0.1153035 0.96718013
0.014642724 -0.11530692 0.96720862
0.024715059 -0.11533216 0.96741986
0.034790389 -0.11535377 0.96759921
0.044861428 -0.11535447 0.96760398
0.054931175 -0.115352 0.967583
0.065000556 -0.11534961 0.96756321
0.075088732 -0.11537627 0.96778572
0.085190289 -0.11541566 0.96811432
0.09511634 -0.11615252 0.96809208
0.10536095 -0.11635259 0.96828133
0.11482891 -0.11721738 0.9681806
0.12504657 -0.11713061 0.96851063
0.13431421 -0.11795518 0.96869671
0.14429078 -0.11807927 0.96954471
-0.044294205 -0.1054028 0.96258903
-0.034632239 -0.10509288 0.96744591
-0.028449515 -0.10186762 0.96991509
-0.012845287 -0.10918443 0.96969306
-0.0045875162 -0.10918313 0.96968156
0.0045876019 -0.10918467 0.96969527
0.014680552 -0.10918645 0.96971112
0.024776999 -0.10920189 0.96984816
0.034871757 -0.10920373 0.96986443
0.04496526 -0.10920137 0.96984357
0.055058312 -0.10919902 0.9698227
0.065150939 -0.10919668 0.96980178
0.071580581 -0.10920621 0.96988654
-0.041950256 -0.096539542 0.96151745
-0.035470992 -0.095142297 0.96650732
-0.033987172 -0.085229948 0.9629721
-0.027346501 -0.083351694 0.96802741
-0.031467192 -0.076760851 0.96120036
-0.025174933 -0.074369438 0.9652108
-0.019252829 -0.071510941 0.96893764
-0.024516784 -0.06513758 0.96281576
-0.017394656 -0.06435401 0.96766174
-0.023133533 -0.054285295 0.96265286
-0.016689202 -0.055653173 0.96727026
-0.03123886 -0.042158172 0.96163815
-0.025306907 -0.045252409 0.96509546
-0.019255774 -0.047680415 0.96908581
-0.043612082 -0.031851027 0.96182293
-0.03467083 -0.034669735 0.9644075
-0.027171293 -0.038162902 0.96800941
-0.052209985 -0.024000173 0.96175534
-0.044977728 -0.024876742 0.96566856
-0.037364807 -0.026979642 0.96843338
-0.061814658 -0.010908202 0.96073645
-0.054430857 -0.014370997 0.9635812
-0.046052609 -0.014989593 0.96819019
-0.062862143 -0.0048877504 0.96112645
-0.054762773 -0.0045640268 0.96469843
-0.046508353 -0.0043529603 0.96856147
-0.0628611 0.0048876773 0.96111023
-0.054740731 0.0045611789 0.9642967
-0.044862796 0.0045762057 0.96767801
-0.0356443 0.0066636438 0.96924299
-0.02452331 0.0061869714 0.96887696
-0.01502908 0.0060466435 0.96849853
-0.0045823436 0.0064144889 0.96863204
0.0045841443 0.0064163986 0.96892053
0.01431646 0.0071223178 0.96894705
0.024075819 0.0075663622 0.96933097
0.032110196 0.0082568442 0.96959895
-0.062210646 0.014285877 0.96083993
-0.054634403 0.014567938 0.96239209
-0.044739056 0.014606673 0.96500885
-0.034754895 0.01462983 0.96659809
-0.024671758 0.0146161 0.96570611
-0.014607001 0.014602277 0.96481067
-0.0045639076 0.014600436 0.96473497
0.0045657 0.014604776 0.96502179
0.01461729 0.014612047 0.96549225
0.024682468 0.01462178 0.96613437
0.034763522 0.014632151 0.96683067
0.044717278 0.015347689 0.96752161
0.054585587 0.016411358 0.96821004
0.064661615 0.017698063 0.96881062
0.074301332 0.018804327 0.96945655
-0.35248786 0.02997965 0.96013689
-0.34449109 0.029995287 0.96063775
-0.33529955 0.029986108 0.96034366
-0.32974669 0.029976971 0.96005112
-0.061481163 0.021503249 0.9602589
-0.054800794 0.025044521 0.96094626
-0.044631828 0.024592713 0.96268153
-0.034624219 0.024598213 0.96294963
-0.024695313 0.025319122 0.96172225
-0.015147342 0.023687812 0.96134251
-0.0048868516 0.022842776 0.96090901
0.0048882267 0.02284814 0.96113724
0.015119558 0.023349181 0.96151316
0.025044197 0.0242506 0.96174181
0.034899704 0.024638934 0.96220094
0.044797849 0.025639968 0.96242583
0.054730374 0.02462459 0.96402389
0.064847544 0.024656484 0.96527243
0.074992493 0.024688704 0.96653402
0.085001893 0.024871424 0.967704
0.09495879 0.025903482 0.9683699
0.10543096 0.026585797 0.96892196
0.1146282 0.02751027 0.96917039
0.12410917 0.02817666 0.96955246
-0.42444554 0.039081782 0.96056426
-0.41450334 0.038864188 0.96159637
-0.40520942 0.038245827 0.96237189
-0.3947973 0.037356868 0.96288735
-0.38463262 0.036987975 0.96379495
-0.37513044 0.036514837 0.96464014
-0.36496159 0.035479441 0.9649238
-0.35492146 0.0346344 0.96541917
-0.34531403 0.034257859 0.96579736
-0.33494705 0.034646563 0.96576536
-0.32471916 0.034886397 0.96548998
-0.3148182 0.035566416 0.96545106
-0.3047899 0.035595737 0.96444172
-0.29527286 0.036267955 0.96387357
-0.2856451 0.036920916 0.96269137
-0.27556038 0.03840417 0.96178818
-0.26720417 0.039080851 0.96054137
-0.074727714 0.03838598 0.96020877
-0.063463859 0.037507448 0.96014726
-0.054317046 0.034972504 0.96116006
-0.044610914 0.03459597 0.962201
-0.034839898 0.034356833 0.961505
-0.026921388 0.035553873 0.96040219
0.055461776 0.030912217 0.96089923
0.065122716 0.032265447 0.9614141
0.075145759 0.033192869 0.96220386
0.08484707 0.034455266 0.96278268
0.094857253 0.034653798 0.96394432
0.10502004 0.03469713 0.96514362
0.11503185 0.03485772 0.96596014
0.12514926 0.034609959 0.96681064
0.13441785 0.035305232 0.9678638
0.1440203 0.037378829 0.9688012
0.15227592 0.039444923 0.96948969
-0.50065333 0.049974471 0.96029806
-0.49900535 0.049991429 0.96062392
-0.48267207 0.048176382 0.96068025
-0.47429359 0.047621325 0.96279979
-0.46477458 0.046778083 0.96457481
-0.45527816 0.045346171 0.96482402
-0.44473103 0.044097606 0.96532655
-0.43490762 0.042801924 0.96480334
-0.42510855 0.042972043 0.96620762
-0.415319 0.042272393 0.96633154
-0.40504834 0.042195901 0.9675222
-0.39536449 0.04118396 0.96724415
-0.38503727 0.041254152 0.96889281
-0.37899849 0.041295238 0.96985763
-0.30364797 0.041281398 0.96953267
-0.29421687 0.041704044 0.96868503
-0.28432733 0.042752963 0.96765989
-0.27463633 0.044129368 0.96674764
-0.26502249 0.044755258 0.96517503
-0.25526443 0.045338526 0.96350265
-0.24537884 0.046723641 0.9624083
-0.23700424 0.047582913 0.96092528
-0.22984914 0.049967203 0.96015847
-0.092154466 0.047440879 0.96050692
-0.084624738 0.045179032 0.96079588
-0.075450838 0.044543587 0.96073753
-0.065375157 0.045155492 0.96045983
-0.054589752 0.044582795 0.96158999
-0.044584967 0.044583969 0.9616304
-0.035334434 0.045303162 0.96091783
-0.028530769 0.044885434 0.96028721
0.089939095 0.040881407 0.96013844
0.096220627 0.041422557 0.96065444
0.10501365 0.042466156 0.9612304
0.11535473 0.044579029 0.96158123
0.12453496 0.045192663 0.96220464
0.13500842 0.044695221 0.96408111
0.14532715 0.044783063 0.965976
0.15474366 0.04486322 0.96770501
0.16418259 0.046544272 0.96877456
0.17340095 0.048625544 0.96963692
-0.54062945 0.059060361 0.96029198
-0.53407377 0.058685053 0.96157825
-0.5246411 0.057903923 0.9636845
-0.51514798 0.056494333 0.96496201
-0.50536329 0.054286312 0.9652307
-0.49505088 0.052564152 0.96560758
-0.48548606 0.051581305 0.96602619
-0.47590786 0.05077669 0.96787822
-0.46788564 0.050458275 0.96959478
-0.26239005 0.050459579 0.96961981
-0.25401643 0.051500499 0.96847594
-0.24453935 0.052592311 0.96710914
-0.23477107 0.054184414 0.96545321
-0.22539243 0.055926599 0.96338797
-0.21535213 0.056732994 0.96187711
-0.20541088 0.057427764 0.96119219
-0.19612482 0.058405951 0.96073103
-0.18807189 0.059056312 0.96022606
-0.092764333 0.054837931 0.96240169
-0.084652208 0.054615293 0.96199644
-0.074595079 0.05458216 0.96142226
-0.064567454 0.055069853 0.96111745
-0.054585997 0.054585252 0.96149719
-0.04455056 0.054550368 0.96088833
-0.0363461 0.054427415 0.96031696
-0.02997734 0.051779043 0.96006292
0.11620679 0.05578649 0.96024144
0.12476058 0.055056188 0.96088409
0.13473676 0.054622967 0.96214497
0.1449573 0.05470074 0.96351993
0.15507688 0.054908775 0.96489495
0.1653358 0.054717083 0.96643096
0.17491622 0.054945115 0.96786463
0.18456811 0.056683447 0.96885639
0.19359474 0.058720607 0.96968538
-0.58047897 0.069948167 0.96007723
-0.57339317 0.067869134 0.96208203
-0.56534201 0.066232957 0.96483809
-0.55516207 0.064359471 0.96511149
-0.54534394 0.062687315 0.96505177
-0.5352574 0.062067226 0.96700805
-0.52629369 0.061431661 0.96903169
-0.23027492 0.061467808 0.96960193
-0.22356914 0.062700108 0.96800619
-0.21466643 0.064614721 0.9664889
-0.20508093 0.065049179 0.96520853
-0.19484362 0.064560547 0.96386755
-0.18494844 0.064690001 0.96288246
-0.17518829 0.065479927 0.96223706
-0.1651977 0.065984502 0.96147335
-0.15550651 0.066946261 0.96110988
-0.14582007 0.067651406 0.9606303
-0.13536343 0.068135872 0.96014118
-0.12536147 0.068131223 0.96007568
-0.11538079 0.068138435 0.9601773
-0.10451848 0.067710005 0.96054047
-0.09416265 0.065369502 0.96622568
-0.085013695 0.064906105 0.96609634
-0.074822105 0.064787529 0.96433169
-0.064682454 0.064684846 0.96281576
-0.054921754 0.064671837 0.96167427
-0.045365017 0.064298414 0.96048552
-0.036037784 0.066928022 0.96018386
0.10891142 0.067325264 0.96009624
0.11528834 0.065274701 0.9604454
0.12460559 0.064576447 0.96124548
0.13480376 0.064669006 0.96262306
0.1450315 0.064762384 0.96401286
0.15528062 0.064852394 0.9653511
0.1655459 0.064938024 0.96662521
0.17490026 0.065015428 0.96777761
0.18521625 0.065100804 0.9690482
0.19240022 0.063623756 0.96983218
-0.58205312 0.076566614 0.96520156
-0.5761075 0.073903419 0.96651703
-0.5688948 0.071226925 0.96923137
-0.21200675 0.070668913 0.96996987
-0.20409809 0.071801752 0.96873283
-0.19481684 0.072808839 0.96824938
-0.18482663 0.073891431 0.96775305
-0.1747603 0.074559927 0.96700877
-0.16514726 0.075207546 0.96630299
-0.1549488 0.07465972 0.96496356
-0.14505273 0.074812077 0.96415645
-0.13492647 0.074761786 0.96350819
-0.12489108 0.074757658 0.96345484
-0.11486308 0.074757464 0.96345353
-0.10486189 0.074776039 0.96369964
-0.097191051 0.072915852 0.96663243
-0.084689774 0.070931256 0.96937227
-0.074682869 0.072162934 0.96845084
-0.064829767 0.073464446 0.96760821
-0.054644518 0.07461042 0.96691567
-0.04476 0.074908957 0.96538562
-0.035039652 0.075466692 0.96387428
-0.025194917 0.076195329 0.96244776
-0.014826796 0.077452578 0.96167475
-0.0045494954 0.078238003 0.96147072
0.004804627 0.078832172 0.96079832
0.011809513 0.079032898 0.9600839
0.10812036 0.075411655 0.96024114
0.11558951 0.075241469 0.9607442
0.1246632 0.074615814 0.96168953
0.13486762 0.074723646 0.96307945
0.14510073 0.074831799 0.96447313
0.15442972 0.074930377 0.96574396
0.16471775 0.075037986 0.96713001
0.17502254 0.075140841 0.96845382
0.18387043 0.074450858 0.96949708
-0.58268213 0.085376672 0.96802884
-0.57779044 0.083971635 0.96942335
-0.16328838 0.081643939 0.96951491
-0.15453717 0.082413226 0.96896744
-0.14480859 0.083709165 0.96862817
-0.1349398 0.084159963 0.96828008
-0.12549454 0.083868183 0.96810764
-0.11510891 0.083222523 0.96777701
-0.10533609 0.083354816 0.96805674
-0.099769741 0.08237911 0.96737063
-0.043108989 0.08163102 0.96936148
-0.034276102 0.083030738 0.96855813
-0.024350431 0.084312588 0.96746951
-0.01463648 0.085076414 0.96676636
-0.0045716832 0.08503142 0.96625447
0.004567157 0.084968507 0.96553332
0.014596761 0.084857211 0.96426624
0.024607902 0.085163914 0.96326059
0.034436032 0.086185709 0.96283358
0.044340048 0.086601868 0.96197236
0.054614674 0.087384932 0.96201581
0.065100342 0.087105639 0.96167016
0.074879117 0.086548828 0.96164018
0.084648214 0.086469986 0.96195322
0.094700009 0.086506128 0.96235532
0.10553265 0.084960997 0.96187174
0.11506139 0.084884875 0.96238744
0.12487278 0.084770642 0.96330756
0.1350591 0.084870592 0.96444857
0.14527582 0.084974758 0.9656378
0.15459017 0.085071996 0.96674818
0.16486107 0.08517921 0.96797234
0.17494999 0.084571585 0.96901977
0.18137895 0.08380755 0.96978134
-0.5841949 0.093474634 0.96925771
0.004587532 0.090839952 0.96975553
0.01532364 0.091028981 0.96897465
0.024735454 0.091616958 0.9682622
0.03479198 0.092478938 0.9676826
0.044843975 0.093353502 0.96723908
0.054881435 0.093302943 0.96671492
0.064913854 0.093260586 0.96627647
0.075023681 0.094242103 0.96694982
0.084856823 0.093932331 0.96704477
0.095159322 0.093332089 0.96702266
0.10526828 0.093371309 0.96742886
0.11470984 0.092924491 0.96754754
0.12490921 0.092538208 0.96830624
0.13474084 0.091660649 0.96872437
0.14422415 0.09104079 0.96910012
0.15323208 0.090838052 0.96973521
0.032933354 0.12899004 0.9668467
-0.052470982 0.13949431 0.96611106
-0.044775181 0.13889062 0.96573198
-0.034703504 0.13880992 0.96516877
-0.024640681 0.13871476 0.96450406
-0.014066292 0.13819692 0.9636302
-0.0049775923 0.13733168 0.96318537
0.0049560131 0.13584986 0.9621672
0.015086742 0.13374926 0.96306825
0.025539877 0.13344879 0.96222615
0.034773804 0.13407703 0.9614476
0.043517433 0.13524038 0.96131837
0.086321056 0.13924357 0.96437275
0.094366767 0.13860764 0.96318269
-0.063175127 0.14740345 0.96762133
-0.055631977 0.14419042 0.96378571
-0.046002503 0.14218815 0.96083462
-0.024534239 0.14084637 0.96036088
-0.019083191 0.14085212 0.96040022
0.02635186 0.1478125 0.96035701
0.035093915 0.14500657 0.96039861
0.043261785 0.14394532 0.96111172
0.057252277 0.1483099 0.96557313
0.065490939 0.14749709 0.96302027
0.074832849 0.14419766 0.96281642
0.084582672 0.1414282 0.9612301
0.096527815 0.14483549 0.96159309
0.1018431 0.14338104 0.96273088
-0.071131848 0.15752508 0.96793467
-0.064772807 0.15507339 0.96409607
-0.058367938 0.15146428 0.96085536
-0.013943977 0.15855707 0.96122313
-0.0047357464 0.15695916 0.96331435
0.0049013109 0.15694931 0.96589845
0.014891117 0.15618432 0.96527052
0.024872266 0.15549277 0.96534878
0.034577806 0.1553846 0.96468365
0.045052614 0.1560173 0.96305114
0.053952921 0.15284206 0.96205002
0.063748695 0.15541103 0.96052676
0.075342558 0.15811084 0.96127242
0.084695347 0.15518063 0.9624685
0.091712855 0.15103303 0.96446985
-0.072997876 0.16522554 0.96796501
-0.064735986 0.16502403 0.96357322
-0.056443334 0.16638994 0.96093708
-0.044519663 0.16808577 0.96024001
-0.034133252 0.16736583 0.96084601
-0.024121577 0.16589274 0.9630394
-0.015881412 0.16526471 0.96691477
-0.0023848473 0.16560791 0.96913636
0.0045726835 0.16467395 0.96689022
0.014385331 0.16498765 0.96537137
0.024631174 0.1651271 0.96418101
0.034618311 0.16489945 0.96284676
0.045162428 0.16447656 0.96151191
0.054888383 0.16529773 0.96192765
0.064028151 0.16306487 0.9627679
0.071611114 0.16192369 0.96411902
-0.070611902 0.17148605 0.96918732
-0.064348593 0.17303184 0.96756643
-0.054526821 0.17391284 0.96539783
-0.044758748 0.1744767 0.96539718
-0.035028502 0.1741315 0.96574432
-0.024707358 0.17387907 0.96718293
-0.014997717 0.17439762 0.96868825
-0.0042780843 0.17447525 0.96881104
0.0043851407 0.17386019 0.96788388
0.014640457 0.17294334 0.96707451
0.02443843 0.17277107 0.96683931
0.034762044 0.17197901 0.96679622
0.044826113 0.1719881 0.96684539
0.052140336 0.17105265 0.96673793
-0.55317974 -0.28029069 0.9776572
-0.54961789 -0.28083342 0.97955024
-0.59158611 -0.2716845 0.9799813
-0.58496523 -0.27119246 0.97820652
-0.57411373 -0.27275082 0.97550046
-0.56519639 -0.27549851 0.97509319
-0.5540269 -0.27655509 0.97288036
-0.54477364 -0.27584991 0.97462118
-0.53517431 -0.2738235 0.97561598
-0.52493703 -0.2717126 0.97674543
-0.5185926 -0.2713353 0.97872168
-0.5915885 -0.26940885 0.97845179
-0.58633345 -0.26781493 0.97433317
-0.57652271 -0.26941171 0.97178328
-0.53096974 -0.26915962 0.97087389
-0.52439576 -0.26833186 0.97231203
-0.51394343 -0.26795679 0.97518015
-0.50423592 -0.26579455 0.97424763
-0.4946624 -0.2638028 0.97597694
-0.48719981 -0.26113653 0.97521806
-0.47886047 -0.26027039 0.97890151
0.016318593 -0.26232657 0.97912884
0.024309449 -0.26277179 0.97872865
0.033653576 -0.260901 0.97894889
-0.48252919 -0.25876293 0.97323179
-0.47494879 -0.25673765 0.97392547
-0.46454498 -0.25389615 0.9752475
-0.4550173 -0.25176087 0.97771329
0.017261533 -0.25658089 0.97896075
0.024948778 -0.25505388 0.9766627
0.034802917 -0.25469172 0.9752658
0.044810928 -0.25324667 0.97699708
0.054282937 -0.25226709 0.97711033
0.060038999 -0.25031644 0.9762041
-0.45440671 -0.24856457 0.97244698
-0.44458354 -0.24667996 0.97530299
-0.43478441 -0.24303062 0.97502381
-0.42743221 -0.24173903 0.97737229
0.026538564 -0.24842612 0.97846073
0.03554415 -0.24603938 0.97659689
0.045250054 -0.24472086 0.9759925
0.055189103 -0.24433376 0.97495013
0.062390734 -0.24457844 0.97542018
-0.43251899 -0.23967613 0.97052073
-0.42329907 -0.23813821 0.97361547
-0.41484863 -0.23628004 0.9751491
-0.40481254 -0.2335099 0.97488719
-0.39664343 -0.23219919 0.97640419
-0.38781157 -0.23046683 0.97820443
-0.18241757 -0.23056668 0.97862822
-0.17442438 -0.23179686 0.97795546
-0.164138 -0.23271179 0.9763968
-0.15463632 -0.23250435 0.97544843
-0.14559613 -0.23293598 0.97734016
-0.13472193 -0.23176424 0.97809684
-0.12499808 -0.23055546 0.97858059
0.039843496 -0.23998757 0.97928596
0.046322726 -0.23773606 0.97765446
0.054804713 -0.23658623 0.97545862
0.061216142 -0.2371753 0.97534591
-0.39297771 -0.22916274 0.97266942
-0.38372377 -0.22724935 0.97410679
-0.37486219 -0.22500239 0.97501892
-0.36524734 -0.22302687 0.97480136
-0.35491338 -0.22274768 0.97682482
-0.34495637 -0.22094554 0.9756639
-0.33691436 -0.2212169 0.97822988
-0.27528697 -0.22152667 0.97959977
-0.26576135 -0.22131285 0.97865427
-0.25510302 -0.22090273 0.97684056
-0.24376239 -0.22099042 0.97586185
-0.23461469 -0.22168703 0.97621298
-0.22471885 -0.22286816 0.97735322
-0.2143504 -0.22297712 0.97647572
-0.20474866 -0.22338271 0.97474307
-0.19540222 -0.22490568 0.97414064
-0.18594818 -0.22696312 0.9740833
-0.17501222 -0.22839913 0.97277194
-0.16715387 -0.22868782 0.97065359
-0.15338762 -0.22870463 0.97072482
-0.1444196 -0.22843629 0.97218484
-0.13520259 -0.22779432 0.97324681
-0.1247309 -0.22617722 0.9733901
-0.11499276 -0.22618821 0.97520363
-0.10469878 -0.22499734 0.97453427
-0.095377445 -0.22491068 0.97549373
